ncols        56
nrows        64
xllcorner    620803.000000000000
yllcorner    4838374.000000000000
cellsize     99.517857142857
NODATA_value -9999
0.0 0 0 0 0 0 0 0 0 0 0 0 0 0 0 0 0 224.055999755859375 227.2050018310546875 227.1139984130859375 224.0330047607421875 209.451995849609375 235.4120025634765625 262.1510009765625 0 0 0 0 0 0 0 0 0 0 0 0 0 0 0 0 0 0 0 0 0 0 0 0 0 0 0 0 0 0 0 0 
0 0 0 0 0 0 0 0 0 0 0 0 0 0 213.4759979248046875 189.44500732421875 202.7050018310546875 200.1439971923828125 213.2429962158203125 210.462005615234375 204.2910003662109375 194.9199981689453125 226.28900146484375 246.759002685546875 227.858001708984375 241.2969970703125 240.365997314453125 242.2859954833984375 258.11700439453125 281.548004150390625 311.178985595703125 346.8800048828125 376.22100830078125 379.522003173828125 400.1820068359375 436.15301513671875 0 0 0 0 0 0 0 0 0 0 0 0 0 0 0 0 0 0 0 0 
0 0 0 0 0 0 0 0 0 0 0 348.467010498046875 327.58599853515625 296.7449951171875 256.28399658203125 216.1829986572265625 169.8430023193359375 182.332000732421875 195.6309967041015625 193.100006103515625 192.319000244140625 191.787994384765625 203.266998291015625 210.485992431640625 210.2550048828125 211.125 221.8939971923828125 250.6739959716796875 278.43499755859375 329.406005859375 359.99700927734375 392.777008056640625 415.8380126953125 432.27899169921875 465.75 499.610992431640625 533.07098388671875 558.1519775390625 617.2030029296875 0 0 0 0 0 0 0 0 0 0 0 0 0 0 0 0 0 
0 0 0 0 0 0 0 0 418.49798583984375 407.09698486328125 406.21600341796875 394.454986572265625 351.503997802734375 302.042999267578125 252.1219940185546875 211.212005615234375 173.71099853515625 176.399993896484375 182.889007568359375 172.2480010986328125 177.6869964599609375 174.0959930419921875 181.7449951171875 197.7239990234375 230.4329986572265625 250.891998291015625 265.751007080078125 258.37200927734375 255.1920013427734375 309.00299072265625 360.764007568359375 414.364990234375 446.34600830078125 480.696014404296875 516.3270263671875 552.0479736328125 576.97900390625 612.708984375 651.94000244140625 689.041015625 0 0 0 0 0 0 0 0 0 0 0 0 0 0 0 0 
0 0 0 0 0 0 0 0 351.605987548828125 351.355010986328125 356.35400390625 379.053009033203125 357.532012939453125 315.782012939453125 278.83099365234375 235.8899993896484375 187.8090057373046875 153.947998046875 167.7469940185546875 164.20599365234375 163.7550048828125 169.5240020751953125 225.542999267578125 263.141998291015625 287.501007080078125 310.399993896484375 320.178985595703125 308.8389892578125 279.839996337890625 299.27099609375 364.371002197265625 428.701995849609375 468.673004150390625 502.343994140625 535.65399169921875 567.4849853515625 605.5460205078125 651.7769775390625 704.64697265625 730.447998046875 758.97900390625 0 0 0 0 0 0 0 0 0 0 0 0 0 0 0 
0 0 0 0 0 0 0 0 296.855010986328125 289.843994140625 307.9630126953125 353.141998291015625 366.790985107421875 346 303.308990478515625 252.0279998779296875 193.5670013427734375 142.9160003662109375 148.1049957275390625 157.003997802734375 147.662994384765625 191.9320068359375 250.1710052490234375 307.579986572265625 342.15899658203125 367.02801513671875 368.24700927734375 355.897003173828125 317.02801513671875 293.37799072265625 354.118988037109375 399.260009765625 433.149993896484375 458.821014404296875 494.761993408203125 542.12298583984375 596.2030029296875 641.583984375 670.9949951171875 703.43499755859375 736.176025390625 752.2969970703125 0 0 0 0 0 0 0 0 0 0 0 0 0 0 
0 0 0 0 0 0 0 0 294.572998046875 249.052001953125 275.09100341796875 304.989990234375 313.47900390625 316.798004150390625 292.34698486328125 257.246002197265625 193.8849945068359375 144.6739959716796875 136.5229949951171875 132.1719970703125 165.3509979248046875 214.1300048828125 273.4580078125 307.196990966796875 357.235992431640625 406.635009765625 416.313995361328125 393.4639892578125 354.165008544921875 330.57598876953125 317.996002197265625 342.907012939453125 381.808013916015625 447.26800537109375 504.628997802734375 548.42999267578125 578.45001220703125 590.010986328125 617.89202880859375 660.84197998046875 715.26300048828125 719.9639892578125 698.60400390625 0 0 0 0 0 0 0 0 0 0 0 0 0 
0 0 0 0 0 0 0 0 278.290985107421875 238.0099945068359375 233.4889984130859375 250.3780059814453125 256.907012939453125 251.7660064697265625 238.9250030517578125 207.4940032958984375 173.0030059814453125 130.712005615234375 119.70099639892578125 139.6999969482421875 186.51800537109375 218.9470062255859375 261.305999755859375 313.55499267578125 346.743988037109375 378.01300048828125 443.832000732421875 427.31201171875 392.87298583984375 374.88299560546875 369.834014892578125 374.2550048828125 373.385009765625 421.805999755859375 472.485992431640625 505.506988525390625 520.8380126953125 545.53802490234375 596.739013671875 651.58001708984375 681.6300048828125 679.34100341796875 669.9010009765625 624.76202392578125 605.9329833984375 0 0 0 0 0 0 0 0 0 0 0 
0 0 0 0 0 0 0 0 275.829986572265625 223.6790008544921875 200.5070037841796875 202.305999755859375 205.845001220703125 199.35400390625 193.613006591796875 173.6620025634765625 137.7910003662109375 112.410003662109375 119.32900238037109375 156.1670074462890625 193.656005859375 230.774993896484375 273.264007568359375 312.803009033203125 361.951995849609375 386.170989990234375 447.089996337890625 474.850006103515625 443.209991455078125 425.040985107421875 431.96099853515625 420.23199462890625 408.662994384765625 405.983001708984375 421.2139892578125 453.28399658203125 496.285003662109375 552.6259765625 609.656005859375 652.9169921875 646.38702392578125 635.14801025390625 625.968994140625 605.26898193359375 558.16998291015625 572.3499755859375 0 0 0 0 0 0 0 0 0 0 
0 0 0 0 0 0 0 0 254.9380035400390625 220.1670074462890625 181.7960052490234375 165.5050048828125 165.2830047607421875 167.6920013427734375 160.8509979248046875 140.17999267578125 109.02899932861328125 102.8679962158203125 130.4770050048828125 177.4850006103515625 223.2039947509765625 268.40301513671875 304.4119873046875 345.281005859375 384.6099853515625 393.75799560546875 422.09698486328125 455.3070068359375 485.62799072265625 489.7080078125 496.27899169921875 479.618988037109375 468.209991455078125 459.33099365234375 467.540985107421875 491.802001953125 523.98199462890625 561.91302490234375 604.60302734375 638.6240234375 622.6240234375 592.67498779296875 581.3759765625 572.98602294921875 524.7769775390625 527.99700927734375 542.10797119140625 0 0 0 0 0 0 0 0 0 
0 0 0 0 0 0 0 0 217.376007080078125 195.035003662109375 165.6840057373046875 156.2530059814453125 132.99200439453125 141.5399932861328125 130.0590057373046875 111.1179962158203125 93.35700225830078125 103.42600250244140625 137.56500244140625 182.51300048828125 232.082000732421875 289.781005859375 310.779998779296875 325.718994140625 336.886993408203125 361.72601318359375 368.7550048828125 409.644989013671875 453.084991455078125 497.0260009765625 544.43597412109375 523.8270263671875 517.0269775390625 525.98797607421875 522.72802734375 542.80902099609375 568.20001220703125 603.07000732421875 636.7509765625 640.57098388671875 613.89202880859375 582.25201416015625 549.15301513671875 507.52301025390625 494.144012451171875 493.92401123046875 499.885009765625 522.125 551.5159912109375 0 0 0 0 0 0 0 
0 0 0 0 0 0 0 0 185.845001220703125 165.60400390625 146.6320037841796875 141.740997314453125 134.94000244140625 118.6490020751953125 107.177001953125 91.04599761962890625 91.785003662109375 101.46399688720703125 131.36199951171875 168.9810028076171875 212.4799957275390625 244.319000244140625 251.227996826171875 271.996002197265625 287.524993896484375 311.03399658203125 337.113006591796875 380.951995849609375 422.233001708984375 468.52301025390625 517.4940185546875 567.43402099609375 565.135009765625 566.7650146484375 578.58599853515625 592.89599609375 617.88702392578125 654.38702392578125 679.38800048828125 659.23797607421875 633.0789794921875 602.00897216796875 573.3900146484375 540.66998291015625 508.290985107421875 464.811004638671875 463.60198974609375 501.381988525390625 537.822021484375 516.60302734375 0 0 0 0 0 0 
0 0 0 0 0 0 0 0 164.7530059814453125 154.6620025634765625 140.6609954833984375 117.71900177001953125 120.447998046875 114.16699981689453125 97.09600067138671875 75.26399993896484375 91.03299713134765625 102.35199737548828125 121.220001220703125 148.248992919921875 178.76800537109375 194.4969940185546875 192.6049957275390625 224.003997802734375 270.842987060546875 306.272003173828125 341.410003662109375 373.5 414.339996337890625 465.47100830078125 519.69097900390625 537.2020263671875 527.97198486328125 546.77301025390625 545.6729736328125 551.91400146484375 577.9639892578125 612.88397216796875 636.375 662.9849853515625 660.96600341796875 632.5260009765625 603.947021484375 570.10699462890625 535.0880126953125 492.858001708984375 448.5880126953125 443.16900634765625 446.5989990234375 437.420013427734375 422.790008544921875 0 0 0 0 0 
0 0 0 0 0 0 0 0 149.4709930419921875 135.5 128.90899658203125 114.64800262451171875 107.39600372314453125 101.3249969482421875 69.81400299072265625 78.522003173828125 87.09100341796875 107.34999847412109375 121.51799774169921875 135.6670074462890625 140.996002197265625 180.68499755859375 225.4929962158203125 262.772003173828125 293.71099853515625 331.239013671875 365.358001708984375 408.14801025390625 453.75799560546875 489.38800048828125 488.40899658203125 483.718994140625 469.6300048828125 487.779998779296875 500.061004638671875 505.740997314453125 541.11102294921875 560.031982421875 584.24200439453125 620.2030029296875 682.593017578125 662.27398681640625 631.7340087890625 597.04498291015625 556.864990234375 512.67498779296875 471.385986328125 438.295989990234375 402.43701171875 382.886993408203125 361.118011474609375 354.808013916015625 338.498992919921875 0 0 0 
0 0 0 0 0 0 0 0 150.600006103515625 132.718994140625 113.197998046875 103.87599945068359375 84.845001220703125 90.7440032958984375 69.4720001220703125 74.64099884033203125 87.44000244140625 100.83899688720703125 106.61699676513671875 136.436004638671875 164.0749969482421875 196.6230010986328125 226.201995849609375 263.381011962890625 314.1090087890625 349.738006591796875 379.467010498046875 415.485992431640625 457.587005615234375 446.60699462890625 430.467987060546875 429.977996826171875 416.968994140625 435.77899169921875 449.459991455078125 460.8900146484375 493.3900146484375 508.46099853515625 538.6710205078125 586.48199462890625 644.83197021484375 676.53302001953125 662.90301513671875 627.43402099609375 584.9539794921875 542.68402099609375 508.904998779296875 475.954986572265625 446.686004638671875 417.165985107421875 374.756988525390625 314.967010498046875 300.26800537109375 286.24798583984375 0 0 
0 0 0 0 0 0 0 0 165.248992919921875 133.548004150390625 110.516998291015625 85.115997314453125 84.4940032958984375 74.97299957275390625 65.641998291015625 77.3600006103515625 85.02899932861328125 96.0279998779296875 117.68599700927734375 146.1049957275390625 156.66400146484375 177.261993408203125 214.7910003662109375 261.54998779296875 307.25799560546875 318.816986083984375 369.186004638671875 412.795013427734375 429.5159912109375 405.5360107421875 378.86700439453125 378.22698974609375 368.048004150390625 398.75799560546875 418.678009033203125 416.90899658203125 440.438995361328125 468.529998779296875 510.670013427734375 568.77099609375 592.281005859375 630.99200439453125 673.09197998046875 666.27197265625 620.40301513671875 591.4730224609375 551.573974609375 512.85400390625 475.875 451.2449951171875 415.196014404296875 364.686004638671875 347.936004638671875 311.386993408203125 259.97900390625 0 
0 0 0 0 0 0 0 0 184.8990020751953125 168.6869964599609375 136.365997314453125 104.25499725341796875 72.4629974365234375 63.11199951171875 58.89099884033203125 73.1790008544921875 80.358001708984375 83.5370025634765625 95.55500030517578125 117.71399688720703125 148.7129974365234375 181.430999755859375 226.6300048828125 254.569000244140625 244.7469940185546875 290.746002197265625 347.614990234375 385.79400634765625 379.404998779296875 389.355010986328125 358.21600341796875 324.615997314453125 323.305999755859375 379.43701171875 380.93701171875 377.76800537109375 406.678009033203125 454.718994140625 505.959014892578125 517.29998779296875 543.8599853515625 587.65997314453125 651.77099609375 683.77099609375 644.34197998046875 621.031982421875 571.8330078125 537.11297607421875 505.194000244140625 488.864013671875 450.54400634765625 419.535003662109375 385.7449951171875 319.795989990234375 290.808013916015625 283.490997314453125 
0 0 0 0 0 0 0 0 138.75799560546875 164.0959930419921875 120.38500213623046875 84.0240020751953125 62.312000274658203125 55.03099822998046875 61.779998779296875 67.48799896240234375 75.7570037841796875 82.40599822998046875 96.35399627685546875 131.0529937744140625 156.86199951171875 181.80999755859375 203.699005126953125 194.8480072021484375 218.7259979248046875 279.404998779296875 339.4840087890625 350.31298828125 324.824005126953125 338.4739990234375 322.4739990234375 295.864990234375 315.144989013671875 347.5260009765625 335.756011962890625 370.777008056640625 418.49700927734375 432.51800537109375 444.167999267578125 467.308013916015625 512.40899658203125 578.55902099609375 627.55999755859375 661.969970703125 646.07098388671875 623.23101806640625 593.9320068359375 570.02197265625 524.031982421875 490.1929931640625 452.9530029296875 429.7340087890625 365.894012451171875 323.834991455078125 299.927001953125 322.5 
0 0 0 0 0 0 0 0 103.77700042724609375 109.555999755859375 93.444000244140625 64.66300201416015625 45.93199920654296875 54.799999237060546875 59.479000091552734375 63.547000885009765625 66.45600128173828125 85.9550018310546875 108.83300018310546875 133.9720001220703125 127.09100341796875 154.139007568359375 171.3379974365234375 187.1970062255859375 245.7949981689453125 298.764007568359375 333.782012939453125 316.61199951171875 277.821990966796875 288.592987060546875 279.162994384765625 265.553985595703125 305.873992919921875 302.55499267578125 336.32501220703125 375.64599609375 376.2860107421875 369.97601318359375 401.0570068359375 455.62701416015625 514.2080078125 549.66802978515625 587.79901123046875 630.0689697265625 648.9000244140625 630.3599853515625 610.760986328125 574.1610107421875 530.1610107421875 479.842010498046875 451.87200927734375 415.673004150390625 374.50299072265625 333.084014892578125 337.305999755859375 344.889007568359375 
0 0 0 0 0 0 0 0 62.23600006103515625 62.44499969482421875 56.44300079345703125 48.731998443603515625 46.620998382568359375 52.88899993896484375 54.257999420166015625 54.646999359130859375 62.27500152587890625 71.23400115966796875 75.582000732421875 99.930999755859375 107.84999847412109375 137.4080047607421875 145.587005615234375 178.2859954833984375 219.2239990234375 276.62298583984375 306.821014404296875 287.09100341796875 255.83099365234375 241.761993408203125 233.3520050048828125 249.7129974365234375 277.993011474609375 293.063995361328125 324.4739990234375 330.813995361328125 323.285003662109375 367.114990234375 430.626007080078125 478.696014404296875 479.326995849609375 512.24700927734375 562.0679931640625 595.27801513671875 624.8489990234375 637.47900390625 612.72900390625 570.82000732421875 526.8800048828125 483.121002197265625 442.131011962890625 408.98199462890625 380.962005615234375 365.803009033203125 372.29400634765625 373.8179931640625 
0 0 0 0 0 0 0 0 39.77500152587890625 38.504001617431640625 41.72299957275390625 43.53099822998046875 43.509998321533203125 50.077999114990234375 51.66699981689453125 56.1360015869140625 59.453998565673828125 76.75299835205078125 80.69100189208984375 89.089996337890625 93.35900115966796875 125.647003173828125 162.0160064697265625 207.6750030517578125 256.26300048828125 288.802001953125 277.55999755859375 257.029998779296875 227.92999267578125 205.3209991455078125 213.9109954833984375 233.4120025634765625 262.951995849609375 281.141998291015625 279.423004150390625 292.092987060546875 335.384002685546875 384.864013671875 416.975006103515625 433.135009765625 437.506011962890625 487.2659912109375 524.5670166015625 562.96697998046875 593.5469970703125 615.64801025390625 615.3380126953125 576.03900146484375 529.42901611328125 506.160003662109375 465.010009765625 457.031005859375 433.83099365234375 424.81201171875 411.27301025390625 395.907012939453125 
0 0 0 0 0 0 0 0 34.134998321533203125 35.6829986572265625 40.062000274658203125 41.189998626708984375 43.60900115966796875 45.437999725341796875 49.08599853515625 56.674999237060546875 64.51300048828125 75.21199798583984375 83.75099945068359375 96.1490020751953125 109.4980010986328125 135.985992431640625 167.095001220703125 207.0829925537109375 261.261993408203125 261.811004638671875 233.968994140625 227.889007568359375 210.819000244140625 184.6100006103515625 196.1399993896484375 229.9499969482421875 242.031005859375 239.96099853515625 266.082000732421875 304.772003173828125 326.2030029296875 348.89300537109375 375.9840087890625 385.91400146484375 397.845001220703125 443.375 487.614990234375 513.59600830078125 557.916015625 610.5469970703125 618.2769775390625 582.0479736328125 556.65802001953125 529.6090087890625 514.72900390625 508.519989013671875 487.839996337890625 454.25 408.441986083984375 381.485992431640625 
0 0 0 0 0 0 0 0 31.12400054931640625 33.61199951171875 37.2910003662109375 37.85900115966796875 41.858001708984375 42.047000885009765625 46.365001678466796875 53.604000091552734375 61.161998748779296875 66.83100128173828125 90.09999847412109375 103.227996826171875 120.47699737548828125 120.80500030517578125 148.313995361328125 180.4720001220703125 216.6909942626953125 226.839996337890625 199.3079986572265625 198.516998291015625 207.2480010986328125 179.25799560546875 180.3690032958984375 193.6190032958984375 202.80999755859375 233.5 274.70098876953125 284.22100830078125 310.141998291015625 320.62200927734375 339.863006591796875 376.542999267578125 423.81298828125 464.704010009765625 495.373992919921875 536.0050048828125 584.33502197265625 625.5460205078125 633.31597900390625 609.8270263671875 577.75701904296875 559.177978515625 558.02801513671875 546.18902587890625 515.30902099609375 461.15899658203125 402.571014404296875 351.053985595703125 
0 0 0 0 0 0 0 0 29.253000259399414062 31.900999069213867188 33.159999847412109375 35.77899932861328125 38.13700103759765625 38.65599822998046875 42.8040008544921875 50.58300018310546875 57.36100006103515625 65.48999786376953125 67.28900146484375 103.1569976806640625 87.82599639892578125 104.15399932861328125 126.08300018310546875 147.740997314453125 170.75 185.998992919921875 165.1970062255859375 156.5260009765625 170.5670013427734375 156.9969940185546875 163.5980072021484375 186.798004150390625 220.9889984130859375 263.3489990234375 278.69000244140625 304.3900146484375 340.860992431640625 367.95098876953125 384.501007080078125 405.72198486328125 443.071990966796875 490.042999267578125 533.4630126953125 561.7540283203125 586.9439697265625 638.875 648.4849853515625 623.46600341796875 600.70599365234375 584.86700439453125 567.13702392578125 544.2869873046875 511.808013916015625 466.87799072265625 419.079986572265625 362.933013916015625 
0 0 0 0 0 0 0 0 27.492000579833984375 30.8209991455078125 31.349000930786132812 33.048000335693359375 32.046001434326171875 31.33499908447265625 41.1829986572265625 46.742000579833984375 48.75099945068359375 45.438999176025390625 56.2779998779296875 66.1060028076171875 61.174999237060546875 94.792999267578125 101.2819976806640625 118.76999664306640625 132.9589996337890625 139.2870025634765625 136.2859954833984375 131.1450042724609375 130.805999755859375 145.8459930419921875 161.4969940185546875 181.3470001220703125 221.2779998779296875 252.8979949951171875 291.178009033203125 327.628997802734375 354.128997802734375 357.579986572265625 352.670013427734375 388.821014404296875 428.550994873046875 473.631988525390625 522.98199462890625 576.78302001953125 613.66302490234375 648.43402099609375 626.01397705078125 600.66497802734375 576.81500244140625 546.44500732421875 534.1259765625 505.855987548828125 470.4169921875 442.256988525390625 393.878997802734375 347.37200927734375 
0 0 0 0 0 0 0 0 25.891000747680664062 27.030000686645507812 29.517999649047851562 29.787000656127929688 30.135000228881835938 29.51399993896484375 34.4329986572265625 39.800998687744140625 42.18000030517578125 38.0279998779296875 42.356998443603515625 47.314998626708984375 59.703998565673828125 73.23200225830078125 82.42099761962890625 92.13899993896484375 107.31800079345703125 108.8560028076171875 112.35500335693359375 104.003997802734375 131.06500244140625 142.214996337890625 144.9459991455078125 175.496002197265625 223.235992431640625 273.36700439453125 298.457000732421875 303.238006591796875 316.477996826171875 306.509002685546875 358.97900390625 403.82000732421875 456.55999755859375 503.3909912109375 532.1209716796875 556.89202880859375 602.9019775390625 632.7130126953125 613.86297607421875 574.91302490234375 545.28399658203125 504.7239990234375 489.464996337890625 474.2349853515625 428.865997314453125 388.2860107421875 350.287994384765625 315.071014404296875 
0 0 0 0 0 0 0 0 23.229999542236328125 25.759000778198242188 26.747999191284179688 26.62599945068359375 28.2350006103515625 25.962999343872070312 31.031999588012695312 34.720001220703125 34.78900146484375 34.5670013427734375 42.366001129150390625 51.8040008544921875 60.33300018310546875 66.121002197265625 70.25 79.76799774169921875 90.5970001220703125 93.93499755859375 95.43399810791015625 113.983001708984375 124.253997802734375 124.4940032958984375 154.8639984130859375 185.9949951171875 220.1649932861328125 242.365997314453125 251.555999755859375 260.837005615234375 287.087005615234375 294.0780029296875 343.477996826171875 392.178985595703125 454.8590087890625 502.75 545.53997802734375 577.17999267578125 602.801025390625 614.791015625 586.37200927734375 552.802001953125 523.88299560546875 480.592987060546875 436.66400146484375 418.694000244140625 390.94500732421875 351.855010986328125 326.506988525390625 326.25 
0 0 0 0 0 0 0 0 20.68000030517578125 23.558000564575195312 24.037000656127929688 24.0149993896484375 25.15399932861328125 23.9720001220703125 26.490999221801757812 28.489000320434570312 27.837999343872070312 30.715999603271484375 37.854999542236328125 46.173000335693359375 54.79199981689453125 63.3300018310546875 71.9589996337890625 78.60700225830078125 68.246002197265625 80.51399993896484375 96.86299896240234375 115.36199951171875 128.9320068359375 144.673004150390625 158.1829986572265625 173.9940032958984375 189.5839996337890625 204.154998779296875 202.81500244140625 222.615997314453125 236.5059967041015625 279.7869873046875 330.43701171875 377.558013916015625 424.947998046875 469.907989501953125 514.26898193359375 557.13897705078125 606.84002685546875 632.6500244140625 596.6710205078125 563.08099365234375 530.96197509765625 497.25201416015625 463.743011474609375 426.912994384765625 398.364013671875 393.803985595703125 380.045013427734375 371.998992919921875 
0 0 0 0 0 14.102999687194824219 15.192000389099121094 16.809999465942382812 19.399000167846679688 22.746999740600585938 22.315999984741210938 21.173999786376953125 20.853000640869140625 21.641000747680664062 22.20999908447265625 22.88800048828125 24.976999282836914062 31.534999847412109375 38.29399871826171875 45.161998748779296875 53.78099822998046875 59.229000091552734375 63.728000640869140625 63.34600067138671875 76.24500274658203125 86.80300140380859375 105.9120025634765625 115.7310028076171875 128.1410064697265625 139.212005615234375 148.552001953125 149.9929962158203125 174.113006591796875 197.7740020751953125 224.7740020751953125 251.43499755859375 287.644989013671875 289.996002197265625 303.376007080078125 346.885986328125 390.076995849609375 431.4169921875 476.787994384765625 535.25799560546875 577.458984375 629.489013671875 638.97998046875 600.94000244140625 569.1309814453125 536.48101806640625 504.511993408203125 463.61199951171875 441.993011474609375 440.15301513671875 436.243988037109375 424.777008056640625 
0 0 0 8.9759998321533203125 10.543999671936035156 12.093000411987304688 14.571000099182128906 14.850000381469726562 17.738000869750976562 20.107000350952148438 19.94499969482421875 19.062999725341796875 18.312000274658203125 18.530000686645507812 20.569000244140625 23.156999588012695312 25.326000213623046875 30.62400054931640625 36.783000946044921875 42.131000518798828125 46.84999847412109375 48.268001556396484375 56.856998443603515625 65.2949981689453125 80.194000244140625 90.8820037841796875 92.89099884033203125 101.779998779296875 112.1999969482421875 120.56099700927734375 147.1909942626953125 166.261993408203125 197.462005615234375 226.352996826171875 260.342987060546875 277.8330078125 317.134002685546875 344.7340087890625 347.105010986328125 354.214996337890625 375.47601318359375 409.22601318359375 457.266998291015625 508.136993408203125 569.3179931640625 625.8179931640625 669.55902099609375 651.27899169921875 615.57000732421875 577.8599853515625 535.73101806640625 503.001007080078125 490.9110107421875 483.571990966796875 474.5830078125 471.656005859375 
0 5.0279998779296875 6.0359997749328613281 8.1149997711181640625 9.4829998016357421875 11.052000045776367188 11.619999885559082031 14.399000167846679688 20.047000885009765625 18.856000900268554688 17.313999176025390625 16.372999191284179688 16.3209991455078125 19.29000091552734375 20.988000869750976562 23.996999740600585938 27.094999313354492188 31.462999343872070312 35.091999053955078125 36.729999542236328125 42.398998260498046875 42.797000885009765625 48.305999755859375 60.43399810791015625 65.0630035400390625 65.19100189208984375 86.4199981689453125 89.74900054931640625 113.40899658203125 118.75 151.9799957275390625 166.4900054931640625 201.550994873046875 245.6710052490234375 287.552001953125 322.6719970703125 336.553009033203125 385.3330078125 402.27398681640625 408.433990478515625 418.07501220703125 443.7349853515625 469.045989990234375 511.795989990234375 562.5469970703125 617.3270263671875 644.64801025390625 639.7080078125 630.1290283203125 590.43902587890625 558.88897705078125 542.219970703125 527.09002685546875 520.52099609375 485.61199951171875 437.69500732421875 
3.8190000057220458984 4.506999969482421875 5.645999908447265625 6.6440000534057617188 8.562999725341796875 9.2309999465942382812 10.4589996337890625 12.668000221252441406 21.606000900268554688 16.66500091552734375 16.173000335693359375 15.571999549865722656 16.45999908447265625 18.018999099731445312 21.047000885009765625 23.62599945068359375 26.114000320434570312 28.312999725341796875 30.231000900268554688 38.27899932861328125 42.5579986572265625 46.895999908447265625 53.7050018310546875 59.4329986572265625 74.99199676513671875 101.20999908447265625 106.2389984130859375 114.6869964599609375 123.81800079345703125 139.50799560546875 141.2790069580078125 168.97900390625 190.80999755859375 225.30999755859375 262.70098876953125 304.9110107421875 348.782012939453125 374.302001953125 405.983001708984375 444.4630126953125 469.53399658203125 487.803985595703125 511.975006103515625 537.43499755859375 570.19598388671875 600.9959716796875 614.45599365234375 601.18701171875 580.5770263671875 556.02801513671875 544.3179931640625 522.50897216796875 500.14898681640625 481.75 469.061004638671875 431.90399169921875 
4.1680002212524414062 4.2459998130798339844 5.2449998855590820312 6.0430002212524414062 7.0019998550415039062 8.6999998092651367188 10.269000053405761719 11.616999626159667969 20.975999832153320312 13.894000053405761719 13.991999626159667969 15.590999603271484375 17.319000244140625 17.857999801635742188 22.9160003662109375 27.975000381469726562 30.572999954223632812 35.981998443603515625 37.630001068115234375 45.73799896240234375 53.966999053955078125 60.595001220703125 74.0540008544921875 78.48200225830078125 88.56099700927734375 94.02899932861328125 115.48699951171875 141.055999755859375 150.9369964599609375 161.7570037841796875 157.798004150390625 150.238006591796875 173.0890045166015625 195.468994140625 230.660003662109375 270.739990234375 308.321014404296875 344.83099365234375 379.881988525390625 415.321990966796875 461.852996826171875 512.9429931640625 548.073974609375 579.40399169921875 603.7039794921875 621.56500244140625 602.7550048828125 587.7960205078125 553.84600830078125 508.967010498046875 491.446990966796875 472.93798828125 449.548004150390625 427.928985595703125 415.410003662109375 412.433013916015625 
4.3070001602172851562 4.2459998130798339844 4.673999786376953125 5.4429998397827148438 6.451000213623046875 7.9089999198913574219 8.618000030517578125 9.9460000991821289062 20.2649993896484375 12.892999649047851562 12.911999702453613281 15.270000457763671875 16.489000320434570312 18.976999282836914062 27.815000534057617188 35.4739990234375 35.922000885009765625 48.410999298095703125 57.63899993896484375 70.5070037841796875 79.42600250244140625 88.8339996337890625 94.14299774169921875 94.69100189208984375 108.34999847412109375 124.92800140380859375 138.615997314453125 162.0449981689453125 182.436004638671875 192.9459991455078125 168.397003173828125 190.8470001220703125 180.488006591796875 229.358001708984375 218.1790008544921875 241.5789947509765625 276.019989013671875 306.8599853515625 347.381011962890625 387.34100341796875 434.70098876953125 480.4119873046875 536.1519775390625 581.41302490234375 627.03302001953125 622.29400634765625 585.78399658203125 569.82501220703125 531.85498046875 495.175994873046875 459.805999755859375 429.196990966796875 410.0369873046875 373.26800537109375 359.65899658203125 357.60198974609375 
5.0669999122619628906 4.7750000953674316406 4.9429998397827148438 5.5720000267028808594 6.4000000953674316406 7.4489998817443847656 7.4369997978210449219 11.065999984741210938 12.244000434875488281 11.102000236511230469 12.770999908447265625 18.628999710083007812 30.0279998779296875 50.70600128173828125 57.394001007080078125 58.983001708984375 57.39099884033203125 56.380001068115234375 79.0879974365234375 100.97699737548828125 113.60500335693359375 121.38300323486328125 124.641998291015625 129.589996337890625 139.0890045166015625 158.8170013427734375 169.285003662109375 188.8939971923828125 201.8849945068359375 217.8950042724609375 194.5160064697265625 227.9759979248046875 212.087005615234375 201.0970001220703125 255.6569976806640625 256.477996826171875 271.01800537109375 281.8590087890625 317.928985595703125 363.519989013671875 412.100006103515625 472.71099853515625 532.23101806640625 577.552001953125 611.1619873046875 603.99298095703125 575.7230224609375 546.67401123046875 512.43402099609375 491.135009765625 467.024993896484375 435.446014404296875 381.47601318359375 334.23699951171875 300.26800537109375 291.010009765625 
5.8460001945495605469 6.0040001869201660156 5.9829998016357421875 6.7509999275207519531 6.5399999618530273438 6.5079998970031738281 7.4959998130798339844 16.635000228881835938 10.993000030517578125 13.682000160217285156 12.550000190734863281 14.0279998779296875 53.087001800537109375 92.02500152587890625 101.2740020751953125 98.61199951171875 89.70999908447265625 74.9290008544921875 93.47699737548828125 125.68599700927734375 152.16400146484375 163.4219970703125 164.58099365234375 173.7989959716796875 179.6869964599609375 183.7559967041015625 202.4239959716796875 218.8430023193359375 237.042999267578125 229.9940032958984375 227.843994140625 264.954986572265625 258.93499755859375 234.46600341796875 248.2660064697265625 267.22698974609375 293.49700927734375 347.467987060546875 350.477996826171875 382.178985595703125 424.928985595703125 486.269989013671875 557.78997802734375 604.6610107421875 616.61102294921875 601.531982421875 567.6820068359375 532.76300048828125 483.9429931640625 445.553985595703125 435.4840087890625 418.43499755859375 392.9849853515625 353.89599609375 298.656005859375 250.889007568359375 
6.2449998855590820312 6.1339998245239257812 5.4320001602172851562 6.0300002098083496094 6.2789998054504394531 6.9070000648498535156 6.0859999656677246094 12.854000091552734375 10.142000198364257812 11.741000175476074219 10.968999862670898438 13.887999534606933594 48.70600128173828125 93.71399688720703125 147.673004150390625 140.7209930419921875 126.63899993896484375 106.3079986572265625 105.3560028076171875 137.2449951171875 184.733001708984375 213.1510009765625 209.9199981689453125 218.00799560546875 222.70599365234375 228.5449981689453125 233.6529998779296875 258.7919921875 262.701995849609375 251.983001708984375 264.113006591796875 307.813995361328125 300.753997802734375 272.404998779296875 268.7449951171875 301.756011962890625 319.996002197265625 349.47698974609375 397.93701171875 419.26800537109375 460.13800048828125 506.3489990234375 570.89898681640625 621.8699951171875 622.57000732421875 603.6409912109375 576.27099609375 540.96197509765625 494.821990966796875 436.13299560546875 379.532989501953125 371.753997802734375 365.634002685546875 355.634002685546875 324.7449951171875 272.798004150390625 
6.5450000762939453125 6.6929998397827148438 5.7810001373291015625 6.0999999046325683594 6.6680002212524414062 6.4559998512268066406 12.154999732971191406 10.1529998779296875 12.54199981689453125 11.520000457763671875 9.7279996871948242188 13.307000160217285156 41.625 83.94300079345703125 134.98199462890625 188.899993896484375 164.51800537109375 142.0070037841796875 128.2649993896484375 147.10400390625 181.332000732421875 228.9799957275390625 261.949005126953125 262.566986083984375 268.07501220703125 272.433990478515625 266.402008056640625 284.031005859375 288.501007080078125 283.4320068359375 283.772003173828125 313.62298583984375 339.81298828125 310.644012451171875 289.264007568359375 349.57501220703125 372.355010986328125 378.376007080078125 418.5360107421875 468.43701171875 502.87701416015625 544.65802001953125 578.89801025390625 583.72900390625 586.72900390625 589.219970703125 581.52001953125 556.96002197265625 504.321014404296875 447.420989990234375 397.4320068359375 350.321990966796875 316.912994384765625 311.542999267578125 307.2139892578125 281.087005615234375 
6.4340000152587890625 6.4419999122619628906 5.8109998703002929688 5.9689998626708984375 7.4869999885559082031 9.055999755859375 12.003999710083007812 9.9619998931884765625 13.531000137329101562 9.4189996719360351562 10.0970001220703125 14.805999755859375 37.444000244140625 75.75299835205078125 119.75099945068359375 175.8690032958984375 207.858001708984375 184.4459991455078125 167.35400390625 163.5330047607421875 191.9109954833984375 230.0890045166015625 271.62799072265625 312.58599853515625 313.014007568359375 315.683013916015625 311.70098876953125 321.57000732421875 320.980010986328125 319.251007080078125 311.6409912109375 311.1719970703125 351.402008056640625 351.7030029296875 318.412994384765625 337.394012451171875 381.4840087890625 420.7550048828125 465.355010986328125 501.64599609375 514.93597412109375 521.406005859375 526.46697998046875 526.0570068359375 529.7979736328125 535.5579833984375 538.29901123046875 531.47900390625 509.8599853515625 471.82000732421875 423.6610107421875 372.1610107421875 320.49200439453125 270.391998291015625 259.4429931640625 253.0659942626953125 
9.0329999923706054688 6.4109997749328613281 6.4400000572204589844 6.8080000877380371094 6.9770002365112304688 13.534999847412109375 10.203000068664550781 10.201999664306640625 9.8500003814697265625 11.298000335693359375 12.637000083923339844 17.55500030517578125 34.573001861572265625 69.2519989013671875 110.45999908447265625 152.5279998779296875 208.7969970703125 236.4149932861328125 222.4029998779296875 205.3119964599609375 209.3600006103515625 237.548004150390625 275.18701171875 311.785003662109375 370.222991943359375 355.24200439453125 358 361.438995361328125 363.019012451171875 358.029998779296875 361.20001220703125 357.441009521484375 365.281005859375 391.191009521484375 374.49200439453125 382.152008056640625 407.52301025390625 432.292999267578125 466.553985595703125 461.944000244140625 454.915008544921875 466.67498779296875 472.165985107421875 465.33599853515625 471.467010498046875 483.12701416015625 486.167999267578125 484.537994384765625 473.459014892578125 452.03900146484375 429.779998779296875 401.07000732421875 346.691009521484375 292.010986328125 245.9120025634765625 204.68499755859375 
0.65200001001358032227 6.5310001373291015625 6.5689997673034667969 7.0869998931884765625 7.9660000801086425781 10.003999710083007812 11.772000312805175781 11.201000213623046875 10.649000167846679688 13.796999931335449219 17.016000747680664062 22.01399993896484375 31.101999282836914062 59.6510009765625 98.128997802734375 137.5469970703125 179.7660064697265625 228.03399658203125 272.37200927734375 259.941009521484375 256.759002685546875 270.337005615234375 292.746002197265625 325.66400146484375 364.082000732421875 409.9110107421875 413.938995361328125 409.696990966796875 407.727996826171875 397.49798583984375 408.269012451171875 410.118988037109375 406.57000732421875 435.910003662109375 417.260986328125 414.02099609375 444.9219970703125 451.00201416015625 426.01300048828125 413.863006591796875 404.454010009765625 420.593994140625 428.345001220703125 412.644989013671875 410.2860107421875 433.156005859375 435.23699951171875 431.087005615234375 430.967987060546875 411.62799072265625 388.829010009765625 392.178985595703125 363.220001220703125 322.8900146484375 279.3909912109375 243.574005126953125 
0.80199998617172241211 9.5799999237060546875 7.2179999351501464844 7.66699981689453125 10.404999732971191406 16.982999801635742188 26.091999053955078125 30.06999969482421875 15.437999725341796875 18.316999435424804688 22.885000228881835938 26.76300048828125 35.43199920654296875 54.529998779296875 85.29799652099609375 119.99700164794921875 162.225006103515625 206.8130035400390625 258.760986328125 313.42999267578125 312.907989501953125 315.105987548828125 334.05499267578125 355.032989501953125 376.920989990234375 410.350006103515625 456.467987060546875 459.006011962890625 452.696990966796875 441.777008056640625 443.68798828125 450.43798828125 436.22900390625 436.259002685546875 442.29998779296875 447.75 439.46099853515625 414.930999755859375 380.951995849609375 370.60198974609375 361.303009033203125 378.662994384765625 397.2139892578125 377.02398681640625 371.93499755859375 393.4849853515625 398.365997314453125 389.985992431640625 384.2869873046875 382.0570068359375 362.3280029296875 368.217987060546875 374.989013671875 346.498992919921875 311.42999267578125 271.712005615234375 
10.670999526977539062 4.8790001869201660156 12.128000259399414062 9.5360002517700195312 11.144000053405761719 14.803000450134277344 22.180999755859375 51.63899993896484375 45.937999725341796875 28.205999374389648438 26.384000778198242188 32.26200103759765625 40.7910003662109375 55.99900054931640625 78.94699859619140625 108.37599945068359375 145.7239990234375 191.082000732421875 236.850006103515625 288.139007568359375 341.0469970703125 374.44500732421875 381.40399169921875 396.10198974609375 412.92999267578125 429.308990478515625 470.316986083984375 516.19500732421875 503.08599853515625 458.385986328125 436.527008056640625 412.777008056640625 396.0679931640625 404.39801025390625 445.519012451171875 448.019012451171875 422.20001220703125 388.790008544921875 374.050994873046875 323.371002197265625 312.881988525390625 337.60198974609375 358.14300537109375 342.162994384765625 331.54400634765625 362.134002685546875 358.864990234375 360.81500244140625 358.2659912109375 355.14599609375 347.62701416015625 332.35699462890625 341.5880126953125 342.26800537109375 332.709014892578125 296.02099609375 
11 0.58899998664855957031 9.506999969482421875 6.3350000381469726562 9.9040002822875976562 16.461999893188476562 43.369998931884765625 62.88800048828125 63.3470001220703125 67.6750030517578125 50.19300079345703125 38.4420013427734375 44.450000762939453125 54.2480010986328125 74.1660003662109375 101.0449981689453125 132.1929931640625 170.990997314453125 215.7299957275390625 262.447998046875 311.316009521484375 358.553985595703125 402.983001708984375 438.480987548828125 440.389007568359375 458.5880126953125 469.656005859375 490.433990478515625 463.92498779296875 422.894989013671875 392.925994873046875 370.906005859375 346.826995849609375 397.897003173828125 438.947998046875 436.368011474609375 409.968994140625 379.27899169921875 353.05999755859375 320.410003662109375 274.670989990234375 293.061004638671875 309.052001953125 289.272003173828125 289.993011474609375 315.8330078125 318.54400634765625 311.194000244140625 340.864990234375 329.375 317.57598876953125 301.996002197265625 292.006988525390625 289.636993408203125 295.87799072265625 294.6300048828125 
10.800000190734863281 0.56800001859664916992 9.1160001754760742188 8.9149999618530273438 9.6630001068115234375 24.5709991455078125 13.88899993896484375 51.437999725341796875 60.895999908447265625 69.3040008544921875 93.48200225830078125 65.6309967041015625 51.949001312255859375 57.176998138427734375 70.6660003662109375 95.35399627685546875 124.18199920654296875 156.9199981689453125 194.8090057373046875 237.9470062255859375 281.82501220703125 323.1929931640625 367.23199462890625 403.269989013671875 434.477996826171875 448.985992431640625 460.9949951171875 439.0830078125 416.3330078125 383.503997802734375 356.373992919921875 334.69500732421875 329.904998779296875 365.876007080078125 402.186004638671875 435.62701416015625 420.527008056640625 400.988006591796875 371.27801513671875 331.468994140625 290.718994140625 249.0399932861328125 255.779998779296875 252.58099365234375 258.821014404296875 277.962005615234375 285.071990966796875 270.072998046875 287.572998046875 305.743988037109375 295.29400634765625 296.165008544921875 274.2550048828125 252.2859954833984375 249.436004638671875 247.128997802734375 
10.359000205993652344 1.8569999933242797852 9.2860002517700195312 9.3839998245239257812 9.6920003890991210938 8.7799997329711914062 11.819000244140625 18.687000274658203125 58.904998779296875 65.4530029296875 88.46199798583984375 101.70999908447265625 93.48799896240234375 95.82599639892578125 76.72499847412109375 85.2429962158203125 115.05100250244140625 145.5189971923828125 178.3780059814453125 213.95599365234375 251.813995361328125 288.2919921875 325.95098876953125 364.678985595703125 409.177001953125 412.045013427734375 422.433990478515625 411.37200927734375 372.74200439453125 346.662994384765625 322.89300537109375 300.074005126953125 295.933990478515625 327.43499755859375 363.375 398.805999755859375 438.135986328125 424.73699951171875 390.006988525390625 353.428009033203125 312.13800048828125 268.718994140625 231.4589996337890625 215.0399932861328125 226.8699951171875 237.9510040283203125 242.6710052490234375 241.302001953125 241.6620025634765625 262.4429931640625 265.412994384765625 262.16400146484375 255.7740020751953125 223.2449951171875 205.3549957275390625 205.0879974365234375 
0 9.8970003128051757812 9.4849996566772460938 8.7729997634887695312 8.2209997177124023438 9.3800001144409179688 9.7679996490478515625 20.086000442504882812 18.413999557495117188 23.353000640869140625 72.371002197265625 98.3489990234375 117.61699676513671875 130.8860015869140625 107.79399871826171875 92.68199920654296875 102.19000244140625 131.298004150390625 161.7769927978515625 189.9250030517578125 217.0030059814453125 252.550994873046875 298.010009765625 350.167999267578125 404.45599365234375 376.9639892578125 368.842987060546875 375.70098876953125 340.58099365234375 307.5419921875 285.6619873046875 266.863006591796875 263.37298583984375 293.753997802734375 333.04400634765625 375.07501220703125 427.774993896484375 438.196014404296875 416.5260009765625 381.826995849609375 334.6669921875 292.3179931640625 260.89801025390625 203.9290008544921875 186.009002685546875 189.9499969482421875 202.9799957275390625 202.8910064697265625 211.1410064697265625 216.3119964599609375 220.272003173828125 226.423004150390625 223.602996826171875 210.1540069580078125 176.2140045166015625 165.2769927978515625 
0 0 9.0240001678466796875 8.2220001220703125 8.2810001373291015625 8.3690004348754882812 8.8570003509521484375 8.4549999237060546875 28.26300048828125 35.312000274658203125 64.87999725341796875 88.6880035400390625 99.1959991455078125 127.4250030517578125 129.2429962158203125 123.16100311279296875 120.128997802734375 114.3379974365234375 139.70599365234375 165.28399658203125 201.701995849609375 249.399993896484375 300.29901123046875 355.11700439453125 393.605010986328125 346.52301025390625 317.49200439453125 330.30999755859375 314.489990234375 273.691009521484375 248.3809967041015625 234.802001953125 240.802001953125 274.282989501953125 311.972991943359375 355.313995361328125 401.873992919921875 419.93499755859375 409.415008544921875 381.925994873046875 343.876007080078125 303.566986083984375 270.886993408203125 237.3979949951171875 191.51800537109375 150.569000244140625 168.7989959716796875 168.0500030517578125 184.2100067138671875 174.3910064697265625 195.9709930419921875 203.5319976806640625 198.302001953125 181.4629974365234375 157.0829925537109375 132.615997314453125 
0 0 0 0 8.5500001907348632812 8.368000030517578125 8.3760004043579101562 8.1840000152587890625 8.33300018310546875 9.6610002517700195312 12.529000282287597656 37.407001495361328125 53.965999603271484375 97.2740020751953125 149.1820068359375 169.1199951171875 174.477996826171875 150.826995849609375 153.095001220703125 163.76300048828125 190.061004638671875 242.1089935302734375 293.727996826171875 335.08599853515625 354.553985595703125 324.56201171875 278.329986572265625 274.759002685546875 274.968994140625 250.2100067138671875 212.8600006103515625 202.990997314453125 215.6309967041015625 252.3419952392578125 295.23199462890625 345.14300537109375 389.792999267578125 381.15399169921875 375.27398681640625 363.375 337.105010986328125 304.906005859375 262.57598876953125 226.7870025634765625 209.11700439453125 180.3979949951171875 129.4380035400390625 144.66900634765625 157.0890045166015625 140.899993896484375 162.029998779296875 169.7209930419921875 163.8809967041015625 155.212005615234375 138.772003173828125 125.84400177001953125 
0 0 0 0 0 8.2370004653930664062 8.5249996185302734375 8.2340002059936523438 7.9419999122619628906 8.159999847412109375 8.3879995346069335938 9.9960002899169921875 15.135000228881835938 66.822998046875 112.45099639892578125 154.949005126953125 210.2270050048828125 189.115997314453125 193.91400146484375 221.4219970703125 229.1999969482421875 240.787994384765625 274.23699951171875 286.9949951171875 303.173004150390625 309.180999755859375 255.319000244140625 220.4980010986328125 228.537994384765625 217.167999267578125 191.1790008544921875 173.47900390625 195.1199951171875 241.160003662109375 287.941009521484375 332.781005859375 366.6719970703125 339.342010498046875 337.01300048828125 351.933013916015625 336.313995361328125 313.144989013671875 275.4849853515625 236.0760040283203125 198.425994873046875 162.576995849609375 150.3170013427734375 118.8280029296875 139.8079986572265625 116.41899871826171875 125.90899658203125 131.05999755859375 136.0500030517578125 135.300994873046875 112.21099853515625 101.5630035400390625 
0 0 0 0 0 0 8.6850004196166992188 8.8730001449584960938 8.2910003662109375 7.9889998435974121094 8.2270002365112304688 8.2959995269775390625 9.8940000534057617188 37.411998748779296875 77.30999755859375 118.51799774169921875 166.73699951171875 205.875 224.9429931640625 263.60101318359375 281.878997802734375 241.266998291015625 225.2960052490234375 229.9640045166015625 247.5919952392578125 278.80999755859375 248.4980010986328125 201.4770050048828125 180.1670074462890625 177.5469970703125 160.3280029296875 148.197998046875 185.878997802734375 226.22900390625 271.79998779296875 308.239990234375 322.531005859375 301.33099365234375 300.891998291015625 324.881988525390625 339.0830078125 314.553009033203125 273.2340087890625 233.0240020751953125 191.625 175.464996337890625 157.175994873046875 124.1360015869140625 114.35700225830078125 129.087005615234375 95.04799652099609375 105.3280029296875 106.759002685546875 107.18900299072265625 91.29000091552734375 86.15200042724609375 
0 0 0 0 0 0 0 8.90200042724609375 8.8100004196166992188 8.5080003738403320312 8.5059995651245117188 8.423999786376953125 8.493000030517578125 10.031000137329101562 41.7089996337890625 78.8170013427734375 125.19499969482421875 176.072998046875 232.891998291015625 275.670013427734375 267.87799072265625 229.235992431640625 185.9640045166015625 183.352996826171875 200.96099853515625 229.40899658203125 246.2169952392578125 203.1049957275390625 157.735992431640625 139.985992431640625 128.826995849609375 136.35699462890625 177.4279937744140625 212.447998046875 251.1190032958984375 270.739013671875 274.32000732421875 263.55999755859375 268.920989990234375 305.22100830078125 318.9320068359375 299.441986083984375 270.38299560546875 239.1529998779296875 216.694000244140625 186.634002685546875 153.774993896484375 123.91500091552734375 93.23600006103515625 114.40599822998046875 114.11699676513671875 94.0670013427734375 80.15799713134765625 81.358001708984375 66.38800048828125 48.0800018310546875 
0 0 0 0 0 0 0 0 9.1780004501342773438 8.7559995651245117188 8.9739999771118164062 8.4630002975463867188 9.3009996414184570312 9.1289997100830078125 11.246999740600585938 22.256000518798828125 98.8040008544921875 158.451995849609375 214.3600006103515625 219.108001708984375 260.10699462890625 233.595001220703125 197.572998046875 141.6410064697265625 156.970001220703125 182.1779937744140625 209.3560028076171875 193.6840057373046875 160.154998779296875 130.154998779296875 104.34600067138671875 116.67600250244140625 158.5260009765625 195.8470001220703125 222.3070068359375 225.298004150390625 243.3480072021484375 225.66900634765625 249.878997802734375 285.5 288.92999267578125 280.990997314453125 265.811004638671875 253.552001953125 221.2920074462890625 189.662994384765625 162.0229949951171875 123.34400177001953125 115.8939971923828125 95.93499755859375 93.0449981689453125 82.115997314453125 78.48600006103515625 0 0 0 
0 0 0 0 0 0 0 0 9.465999603271484375 9.3739995956420898438 9.3830003738403320312 9.2209997177124023438 9.2089996337890625 9.0469999313354492188 9.1359996795654296875 22.753999710083007812 65.7819976806640625 136.1100006103515625 147.66900634765625 168.2570037841796875 213.7649993896484375 237.063995361328125 209.462005615234375 164.8800048828125 114.88800048828125 132.1269989013671875 152.9550018310546875 160.673004150390625 146.6829986572265625 112.32399749755859375 103.944000244140625 70.464996337890625 123.875 165.3560028076171875 187.865997314453125 193.0070037841796875 192.1269989013671875 198.537994384765625 235.0279998779296875 247.1190032958984375 249.1490020751953125 245.4499969482421875 235.94000244140625 244.850006103515625 240.2209930419921875 222.9210052490234375 190.1519927978515625 152.4720001220703125 106.352996826171875 111.66300201416015625 102.09400177001953125 0 0 0 0 0 
0 0 0 0 0 0 0 0 0 9.6920003890991210938 9.840999603271484375 9.548999786376953125 9.2270002365112304688 8.826000213623046875 8.8339996337890625 9.29199981689453125 46.770999908447265625 111.4889984130859375 96.9369964599609375 154.14599609375 209.134002685546875 219.4320068359375 206.6009979248046875 176.72900390625 126.0370025634765625 78.996002197265625 100.0540008544921875 111.3119964599609375 127.46199798583984375 97.5930023193359375 92.322998046875 63.854000091552734375 104.2740020751953125 138.3650054931640625 152.56500244140625 152.45599365234375 144.64599609375 189.156005859375 209.587005615234375 206.3470001220703125 216.5279998779296875 215.858001708984375 190.699005126953125 202.2689971923828125 224.6699981689453125 209 178.899993896484375 137.77099609375 141.8209991455078125 0 0 0 0 0 0 0 
0 0 0 0 0 0 0 0 0 0 9.3489999771118164062 9.9569997787475585938 8.8559999465942382812 9.5839996337890625 9.451999664306640625 9.0509996414184570312 25.839000701904296875 22.406999588012695312 39.98600006103515625 134.5540008544921875 152.4329986572265625 169.281005859375 197.199005126953125 187.9680023193359375 156.126007080078125 109.84400177001953125 51.25299835205078125 65.6009979248046875 75.89099884033203125 75.1320037841796875 65.802001953125 54.213001251220703125 86.8430023193359375 117.3730010986328125 113.9739990234375 114.31400299072265625 114.02500152587890625 141.964996337890625 173.175994873046875 172.33599853515625 204.615997314453125 204.7469940185546875 167.4470062255859375 181.9380035400390625 200.38800048828125 188.6089935302734375 171.9889984130859375 0 0 0 0 0 0 0 0 0 
0 0 0 0 0 0 0 0 0 0 4.7670001983642578125 9.395999908447265625 9.6339998245239257812 9.5019998550415039062 8.930999755859375 9.3789997100830078125 11.20800018310546875 18.475999832153320312 22.034000396728515625 19.83300018310546875 52.921001434326171875 160.1300048828125 171.50799560546875 195.436004638671875 187.6150054931640625 155.64300537109375 95.29199981689453125 52.9199981689453125 37.299999237060546875 39.880001068115234375 34.4010009765625 73.70099639892578125 104.9720001220703125 124.73200225830078125 91.11299896240234375 78.94300079345703125 90.93399810791015625 107.84400177001953125 123.9739990234375 147.06500244140625 189.2949981689453125 179.3560028076171875 152.39599609375 156.1060028076171875 177.266998291015625 190.457000732421875 0 0 0 0 0 0 0 0 0 0 
0 0 0 0 0 0 0 0 0 0 0 1.9240000247955322266 1.8919999599456787109 1.8910000324249267578 3.5190000534057617188 11.428000450134277344 11.086000442504882812 11.673999786376953125 14.432999610900878906 16.7910003662109375 62.09999847412109375 123.20800018310546875 136.73699951171875 159.1649932861328125 173.7239990234375 168.451995849609375 124.67099761962890625 79.78900146484375 33.03900146484375 23.669000625610351562 51.810001373291015625 69.339996337890625 92.7310028076171875 119.72100067138671875 98.89099884033203125 62.742000579833984375 67.76200103759765625 79.38300323486328125 89.4629974365234375 116.46399688720703125 157.9539947509765625 147.444000244140625 108.9850006103515625 158.9149932861328125 185.876007080078125 0 0 0 0 0 0 0 0 0 0 0 
0 0 0 0 0 0 0 0 0 0 0 8.1619997024536132812 10.449999809265136719 11.149000167846679688 9.16699981689453125 1.9060000181198120117 1.9140000343322753906 5.5630002021789550781 12.630999565124511719 14.239999771118164062 34.908000946044921875 57.466999053955078125 91.285003662109375 114.87400054931640625 133.141998291015625 143.71099853515625 109.47899627685546875 65.197998046875 29.618000030517578125 16.7779998779296875 42.7389984130859375 81.74900054931640625 125.33899688720703125 137.029998779296875 120.26000213623046875 81.34100341796875 42.631000518798828125 56.381000518798828125 59.051998138427734375 90.84200286865234375 140.423004150390625 123.55300140380859375 85.322998046875 122.7239990234375 0 0 0 0 0 0 0 0 0 0 0 0 
0 0 0 0 0 0 0 0 0 0 0 0 7.3590002059936523438 8.5670003890991210938 8.9960002899169921875 11.053999900817871094 11.343000411987304688 3.9609999656677246094 2.0199999809265136719 5.8379998207092285156 12.647000312805175781 17.9459991455078125 42.23400115966796875 66.322998046875 100.3509979248046875 107.8899993896484375 92.95800018310546875 48.52700042724609375 15.036999702453613281 14.217000007629394531 41.74700164794921875 94.947998046875 142.9080047607421875 156.0989990234375 116.13899993896484375 75.02899932861328125 35.759998321533203125 41.59999847412109375 45.28099822998046875 87.45099639892578125 110.871002197265625 90.74199676513671875 58.36199951171875 0 0 0 0 0 0 0 0 0 0 0 0 0 
0 0 0 0 0 0 0 0 0 0 0 0 7.2870001792907714844 7.6160001754760742188 8.2740001678466796875 9.993000030517578125 10.230999946594238281 11.470000267028808594 11.718000411987304688 2.1370000839233398438 2.0260000228881835938 13.663999557495117188 10.843000411987304688 18.231000900268554688 31.010000228881835938 50.379001617431640625 64.0970001220703125 26.455999374389648438 10.4160003662109375 12.656000137329101562 47.855998992919921875 106.63700103759765625 123.5970001220703125 119.9369964599609375 119.4380035400390625 71.4680023193359375 37.0989990234375 20.829000473022460938 26.079000473022460938 66.1399993896484375 71.79000091552734375 49 63.730998992919921875 0 0 0 0 0 0 0 0 0 0 0 0 0 
0 0 0 0 0 0 0 0 0 0 0 0 0 0 0 10.220999717712402344 10.270000457763671875 10.157999992370605469 12.496999740600585938 10.866000175476074219 9.5039997100830078125 2.0130000114440917969 12.081000328063964844 11.369999885559082031 10.348999977111816406 9.8170003890991210938 16.215999603271484375 9.69499969482421875 10.423999786376953125 10.725000381469726562 49.0449981689453125 89.06600189208984375 98.95600128173828125 106.45600128173828125 102.427001953125 66.16699981689453125 32.337001800537109375 13.647999763488769531 25.148000717163085938 50.268001556396484375 38.828998565673828125 61.578998565673828125 0 0 0 0 0 0 0 0 0 0 0 0 0 0 
0 0 0 0 0 0 0 0 0 0 0 0 0 0 0 0 0 0 10.414999961853027344 10.473999977111816406 12.322999954223632812 2.0510001182556152344 12.010000228881835938 11.628999710083007812 11.737999916076660156 11.326000213623046875 10.875 12.994000434875488281 11.392999649047851562 10.3339996337890625 31.0839996337890625 52.883998870849609375 53.77500152587890625 60.755001068115234375 65.05500030517578125 41.23600006103515625 16.266000747680664062 13.286000251770019531 22.91699981689453125 37.766998291015625 31.327999114990234375 0 0 0 0 0 0 0 0 0 0 0 0 0 0 0 
0 0 0 0 0 0 0 0 0 0 0 0 0 0 0 0 0 0 0 0 0 0 5.1189999580383300781 11.678000450134277344 11.755999565124511719 11.05500030517578125 11.123999595642089844 11.482000350952148438 11.062000274658203125 11.173000335693359375 12.602999687194824219 11.782999992370605469 20.354000091552734375 33.063999176025390625 30.483999252319335938 13.515000343322753906 12.904999732971191406 11.914999961853027344 14.305999755859375 18.895999908447265625 0 0 0 0 0 0 0 0 0 0 0 0 0 0 0 0 
